ply
format ascii 1.0
element vertex 1533
property float x
property float y
property float z
end_header
0.2354726 -0.3435943 0.7261522
0.3100272 -0.2459832 0.001586586
0.3942107 -0.04448822 0.2681021
0.4233295 -0.08764622 0.2429804
0.3767893 -0.03480849 0.2809495
0.407534 -0.1111332 0.07667054
0.4165034 -0.1220227 0.07931633
0.4081399 -0.09512387 0.2563376
0.4006768 -0.08659616 0.2520238
0.4000317 -0.1033293 0.2037983
0.4021462 -0.1094364 0.2052867
0.3886374 -0.1110006 0.1683948
0.3886958 -0.1116399 0.1768138
0.4198228 -0.1175937 0.2001917
0.3856719 -0.1055375 0.2076283
0.3934993 -0.09402747 0.2588859
0.398401 -0.1135438 0.173953
0.3128741 -0.1245095 0.1732223
0.3099054 -0.1147976 0.162398
0.3446473 -0.5182405 1.289387
0.4218802 -0.5511073 1.266447
0.3437763 -0.5976178 1.327255
0.3599505 -0.2572378 -0.007745937
0.3588227 -0.2649035 -0.01570909
0.3356773 -0.2481943 -0.02272936
0.1327521 -0.6473418 0.9713365
0.2649351 -0.263187 -0.05590376
0.2820724 -0.2289155 0.002207026
0.4197749 -0.5433501 1.278494
0.2575789 -0.120198 0.1671835
0.266977 -0.1178127 0.09013979
0.2475561 -0.123229 0.1618706
0.2299874 -0.3300727 0.7175276
0.2516634 -0.1180343 0.08578788
0.2556491 -0.1187471 0.1589078
0.3699569 -0.1148623 0.1702634
0.3956017 -0.1169083 0.08368652
0.3697114 -0.07031801 0.2790834
0.3738081 -0.08896492 0.2680887
0.3856241 -0.1138204 0.1393383
0.3627218 -0.0954949 0.2633414
0.3722572 -0.1126924 0.2063623
0.3487226 -0.08024684 0.2785025
0.362727 -0.11124 0.2286394
0.3555192 -0.1121377 0.2151299
0.3683752 -0.112196 0.1195221
0.3452778 -0.1142214 0.1348109
0.3249449 -0.1099836 0.2707705
0.3293581 -0.1142317 0.1959205
0.3492496 -0.109003 0.2561903
0.3246825 -0.1128068 0.2075633
0.3212225 -0.1158948 0.1494287
0.3097396 -0.1105035 0.2423754
0.3072116 -0.125541 0.2782328
0.3266967 -0.1125476 0.281358
0.3326391 -0.1240958 0.1305689
0.4555914 -0.5625717 1.318585
0.3225065 -0.1200192 0.1404117
0.3132372 -0.112833 0.1839179
0.4487114 -0.5865562 1.293141
0.306635 -0.113929 0.2440351
0.4010187 -0.5398366 1.277092
0.304228 -0.1127794 0.1671455
0.2970052 -0.133796 0.2883103
0.3819608 -0.6016802 1.345086
0.2955982 -0.114237 0.1507529
0.3651616 -0.5882124 1.335479
0.2675508 -0.1125622 0.1602862
0.2690712 -0.1174633 0.08419795
0.2571009 -0.1140621 0.1409169
0.2535747 -0.122253 0.1583241
0.2608815 -0.1143093 0.07818826
0.2569316 -0.1164927 0.09457414
0.2675001 -0.1145994 0.1664726
0.3104893 -0.1193301 0.2729431
0.2385611 -0.363088 0.7943158
0.2690313 -0.1161168 0.07957511
0.2631816 -0.1105722 0.09352066
0.2991818 -0.2144999 0.0291115
0.2545201 -0.1153777 0.1403992
0.1979264 -0.2986913 0.6993049
0.1968718 -0.3067756 0.6945827
0.2548502 -0.1206513 0.07938041
0.2307655 -0.1250177 0.08006491
0.2771099 -0.2162347 -0.005967811
0.2191197 -0.1370941 0.1700977
0.1477536 -0.5763646 0.9235721
0.2568864 -0.1180821 0.1582572
0.1488569 -0.6267149 0.9209154
0.2770562 -0.2238788 0.03419028
0.1481402 -0.6621749 0.9289258
0.1356416 -0.6451833 0.9294189
0.1515724 -0.5826164 0.9226937
0.3464135 -0.1091793 0.1814769
0.3637305 -0.03643003 0.2734486
0.3619903 -0.05862908 0.2697005
0.3842095 -0.1098505 0.1564156
0.3815886 -0.1093556 0.1927193
0.3623213 -0.09242325 0.2739354
0.3724032 -0.1086313 0.1817119
0.3663936 -0.1079866 0.1130966
0.3512409 -0.07865174 0.2770172
0.3708943 -0.1064575 0.2426653
0.3816933 -0.2774189 0.001104087
0.3559919 -0.5349248 1.296351
0.3101021 -0.2293666 0.009255186
0.3229467 -0.227882 -0.001139566
0.2355613 -0.3428578 0.7252387
0.2892289 -0.2098488 0.03471613
0.4258235 -0.1101447 0.1227605
0.3931115 -0.04264097 0.2650448
0.4221845 -0.08567965 0.2404043
0.4177306 -0.1110286 0.118399
0.4191216 -0.1106014 0.140245
0.3759831 -0.03325692 0.2783608
0.4073254 -0.1103032 0.07620925
0.4117584 -0.1101865 0.1154764
0.4065423 -0.09234257 0.2523596
0.4056993 -0.1101147 0.1670225
0.4006798 -0.109785 0.1265909
0.4009104 -0.1101244 0.1490474
0.3981308 -0.09988615 0.1994813
0.401289 -0.1075859 0.2032814
0.3949315 -0.1093873 0.1251711
0.3942974 -0.1090963 0.1448001
0.3877248 -0.1089335 0.1663165
0.3882226 -0.1103261 0.1756473
0.4180551 -0.1145068 0.196621
0.3864246 -0.1063315 0.209366
0.3917716 -0.09084468 0.254168
0.3904509 -0.1059994 0.1235943
0.3976009 -0.1117353 0.1721849
0.3924244 -0.1111053 0.1503646
0.3101658 -0.1154837 0.1636637
0.3457131 -0.5242311 1.303357
0.3450409 -0.6058197 1.344421
0.3607008 -0.2593706 -0.007144943
0.2540747 -0.1108278 0.08204037
0.1337607 -0.6404365 0.9619887
0.2647114 -0.2590041 -0.05691218
0.2552227 -0.254822 -0.05150245
0.2818744 -0.2268887 0.001378879
0.3477874 -0.1094162 0.2091644
0.4201781 -0.5440739 1.279631
0.2576048 -0.1185573 0.165287
0.2670041 -0.1166324 0.08911364
0.2478645 -0.1252073 0.1641064
0.2301989 -0.329359 0.7161022
0.2517866 -0.1172301 0.08510391
0.2557842 -0.1181588 0.158248
0.3691045 -0.1129162 0.1679313
0.3948024 -0.1150856 0.08210963
0.3688155 -0.06836255 0.2752303
0.3493521 -0.08099374 0.280035
0.3630193 -0.1112853 0.2287629
0.3555588 -0.1116232 0.2144531
0.3693598 -0.1136308 0.1210337
0.345492 -0.1140991 0.1347127
0.325567 -0.1111142 0.272717
0.3500476 -0.1102581 0.2582725
0.3248133 -0.1124142 0.207075
0.3208852 -0.1139298 0.1472341
0.3104004 -0.11208 0.2448715
0.3069112 -0.1232062 0.2745806
0.3270283 -0.112774 0.2818077
0.3328319 -0.1239081 0.1304045
0.4556012 -0.5617518 1.316556
0.3132516 -0.1119643 0.1828487
0.4443436 -0.5701051 1.260255
0.3070067 -0.1144308 0.2448655
0.4038281 -0.5509214 1.300004
0.3044934 -0.1128605 0.1672938
0.2971788 -0.1334204 0.287774
0.3827471 -0.6045046 1.350445
0.2956617 -0.1133424 0.1497687
0.3667216 -0.5960577 1.351125
0.267947 -0.1144642 0.1626142
0.2691348 -0.1156808 0.08266909
0.2573926 -0.1155634 0.1426325
0.2537817 -0.1216956 0.1577329
0.2611169 -0.1145175 0.07839291
0.2571329 -0.1160235 0.09417479
0.2677859 -0.1152415 0.1673028
0.3107854 -0.1195083 0.2732936
0.2387553 -0.3669662 0.8014672
0.2691145 -0.1145544 0.07825883
0.2634647 -0.1113986 0.09432603
0.2995602 -0.2154842 0.0295396
0.2547766 -0.1163494 0.1415177
0.2550403 -0.1197994 0.07868636
0.2309693 -0.1250974 0.08015479
0.2571328 -0.1185754 0.1588794
0.2772498 -0.2235709 0.03400849
0.1472701 -0.6713204 0.9409703
0.1339381 -0.6590182 0.9481418
0.150538 -0.5924114 0.936986
0.3467383 -0.1091584 0.1816202
0.3625671 -0.035539 0.2705048
0.3614674 -0.05871636 0.2683495
0.372122 -0.1083264 0.1809348
0.366204 -0.1075069 0.1125931
0.3417332 -0.05953941 0.2144589
0.3518171 -0.07851982 0.2778143
0.3699697 -0.1048254 0.2403738
0.3082628 -0.1190014 0.272687
0.38098 -0.2760582 0.000222519
0.3590424 -0.5495727 1.324541
0.3375377 -0.2356009 -0.00599508
0.3231271 -0.2277251 -0.001063094
0.2357481 -0.3435465 0.7261374
0.3089749 -0.239599 -0.0003915131
0.4252999 -0.1090251 0.1216038
0.4198678 -0.08240435 0.2348892
0.4166462 -0.1090546 0.1163823
0.4179133 -0.1084711 0.1378795
0.4090042 -0.1124096 0.07804252
0.4099128 -0.1070269 0.1122608
0.4047663 -0.1082415 0.164746
0.4006783 -0.1093276 0.1261293
0.3992863 -0.1012237 0.2014468
0.400739 -0.10628 0.2015046
0.3937081 -0.1076587 0.1431819
0.3870215 -0.1072398 0.1642594
0.3890218 -0.1103069 0.2151088
0.3924651 -0.1088814 0.1267297
0.3981493 -0.1121636 0.1727598
0.3920892 -0.1100665 0.1491917
0.3103883 -0.1153834 0.1635893
0.3471985 -0.6199368 1.372313
0.3629783 -0.2663634 -0.004928902
0.1320445 -0.6540648 0.9811101
0.3477526 -0.1084114 0.2078989
0.4519708 -0.1090713 0.1009434
0.4532212 -0.101465 0.1681293
0.4441423 -0.07703629 0.2247547
0.4536567 -0.1055057 0.1582561
0.4428795 -0.1062831 0.1163853
0.4419656 -0.0833534 0.2329742
0.4419662 -0.1040329 0.177602
0.4324461 -0.106075 0.1065855
0.4368352 -0.1056035 0.1387931
0.4215275 -0.07670902 0.2259179
0.4137791 -0.1010121 0.1937838
0.4265566 -0.0801281 0.2281878
0.4284148 -0.1116802 0.1145492
0.4096671 -0.1081047 0.118305
0.3825383 -0.05196086 0.2598817
0.3049832 -0.5567762 1.086746
0.1618044 -0.376998 0.8442723
0.4199155 -0.5438061 1.27395
0.2579705 -0.1182812 0.164283
0.2675557 -0.1164568 0.08880302
0.2489985 -0.1266324 0.1648957
0.2309465 -0.3291363 0.7134947
0.369265 -0.1127115 0.167337
0.3948641 -0.1144897 0.08155048
0.3679247 -0.06602719 0.2704943
0.3717006 -0.08370641 0.2588629
0.3508528 -0.08344346 0.2826118
0.3644451 -0.1131964 0.2307481
0.3562903 -0.1123441 0.2146179
0.3272213 -0.1140749 0.2761655
0.326098 -0.1124792 0.2079329
0.3210116 -0.1127343 0.1454788
0.3122506 -0.1169404 0.2503439
0.3069169 -0.1226898 0.2722226
0.3276294 -0.1128751 0.2810231
0.3230401 -0.1178495 0.1378922
0.3136867 -0.1125057 0.1824426
0.3079561 -0.1164014 0.2461112
0.4072496 -0.5628468 1.321074
0.3055604 -0.1139549 0.1675656
0.3882464 -0.2849523 0.02233699
0.2977058 -0.1342979 0.2870493
0.3828928 -0.6076176 1.350284
0.2962776 -0.1131266 0.1490608
0.3685839 -0.6051379 1.365223
0.2694315 -0.1192024 0.1670312
0.2695253 -0.1146247 0.08115569
0.2585765 -0.1199964 0.1461435
0.2526183 -0.1219814 0.1708137
0.2545034 -0.122706 0.1577699
0.2620929 -0.1165861 0.07928762
0.2577556 -0.1166803 0.09372473
0.2688069 -0.1179537 0.1692981
0.3116297 -0.120853 0.2741489
0.2393221 -0.3699124 0.8037359
0.1979179 -0.3144305 0.7256355
0.3487782 -0.1118466 0.1853364
0.362668 -0.0598658 0.2696013
0.3678228 -0.1098284 0.1146744
0.3720555 -0.1081755 0.2449735
0.3093278 -0.1202768 0.2739588
0.3820259 -0.2773336 0.0007039905
0.3383119 -0.2355725 -0.005969673
0.4072203 -0.0839397 0.244238
0.3336124 -0.2336251 -0.005461097
0.4276077 -0.1114599 0.1239561
0.3902749 -0.03724895 0.254139
0.4201401 -0.08197883 0.2338671
0.4181598 -0.1103739 0.1176849
0.419217 -0.1093748 0.1388593
0.4125455 -0.116856 0.08157378
0.4049911 -0.1033466 0.06366512
0.4064835 -0.1098938 0.1665697
0.4028041 -0.1117862 0.1284054
0.4030126 -0.1091177 0.2048822
0.4144455 -0.1074975 0.1877679
0.3918912 -0.1146621 0.2202375
0.3883704 -0.08327357 0.2419181
0.4012084 -0.1149154 0.1770381
0.394245 -0.112567 0.1517068
0.3115207 -0.11683 0.1647885
0.3477513 -0.6235741 1.375205
0.3669927 -0.2738701 -0.003695935
0.134958 -0.6380901 0.9576769
0.3494109 -0.1099955 0.2103246
0.4538451 -0.11101 0.102495
0.459226 -0.1086196 0.1770564
0.4472937 -0.08039141 0.2296851
0.4572673 -0.1096656 0.162941
0.4426673 -0.08376262 0.232684
0.4456093 -0.108443 0.1829392
0.4358532 -0.1103738 0.1106914
0.4254431 -0.08148538 0.233422
0.4296026 -0.08366808 0.2334325
0.4300397 -0.1134226 0.1159555
0.4113088 -0.1099841 0.1199062
0.4680691 -0.1085881 0.08555613
0.4754555 -0.1031707 0.148881
0.4720621 -0.1073903 0.1501041
0.4509666 -0.1085545 0.1599843
0.4324363 -0.1080595 0.1900164
0.4464936 -0.1109517 0.1272262
0.4500611 -0.108923 0.1651002
0.43437 -0.1139359 0.1575964
0.4307949 -0.107009 0.1706066
0.4051087 -0.1060181 0.1898661
0.393196 -0.115979 0.09077694
0.4163969 -0.1118679 0.1648682
0.3995021 -0.08727837 0.2408169
0.398555 -0.1081686 0.1921807
0.3146766 -0.1141971 0.1470188
0.38684 -0.1199557 0.08929177
0.3716023 -0.1141366 0.121691
0.3233025 -0.1135164 0.2017097
0.3351383 -0.2494715 -0.01429817
0.3273292 -0.2679475 -0.03415823
0.5010506 -0.1091715 0.1327558
0.4836917 -0.1062804 0.07516034
0.4931407 -0.1047419 0.1428073
0.4916322 -0.1090304 0.1242124
0.4821121 -0.1113708 0.08377059
0.4809704 -0.109988 0.1034118
0.4727852 -0.1120502 0.06585133
0.4699148 -0.1134474 0.1007192
0.4531969 -0.1147102 0.1114031
0.4705605 -0.122905 0.06219119
0.4359052 -0.1090142 0.13077
0.4283589 -0.1075453 0.1056919
0.422474 -0.08897085 0.2536406
0.4068424 -0.11103 0.1882828
0.3652492 -0.08329061 0.2515505
0.609022 -0.6460339 -0.00154078
0.3666151 -0.1114 0.2037105
0.3545265 -0.09880051 0.2635327
0.3810318 -0.1155278 0.1401765
0.3524759 -0.1002724 0.2758153
0.6184863 -0.7553285 0.004428208
0.6010455 -0.7449039 0.08105814
0.3345411 -0.114415 0.1638331
0.3276982 -0.1122235 0.1598828
0.3141842 -0.1146707 0.1726837
0.3696541 -0.275636 -0.00462395
0.3194751 -0.1367122 0.3257835
0.3702391 -0.3114222 -0.04515053
0.3023972 -0.1601103 0.1876882
0.2813687 -0.2273635 0.03610677
0.28764 -0.2158709 0.02290806
0.2581823 -0.1182397 0.1642006
0.267743 -0.1167154 0.08907858
0.2312464 -0.3285577 0.7120483
0.3694529 -0.1128599 0.1674823
0.3951457 -0.1148813 0.08199231
0.3682247 -0.06649138 0.2712071
0.3719674 -0.08409426 0.2593855
0.3509901 -0.08342929 0.2823254
0.3647786 -0.1138193 0.2316036
0.3565596 -0.1127775 0.2151718
0.3274 -0.1140701 0.2759744
0.3262986 -0.1126024 0.2080278
0.3212338 -0.1129891 0.1457866
0.312475 -0.1172046 0.2506351
0.3071701 -0.1233097 0.2731015
0.3278651 -0.1132161 0.2814377
0.3231407 -0.1172688 0.1372204
0.3139355 -0.1129964 0.1830675
0.3081855 -0.1167213 0.2464946
0.4075479 -0.5636662 1.321935
0.3057915 -0.1143153 0.1680079
0.2979134 -0.1341186 0.28659
0.3828793 -0.6061362 1.346419
0.296515 -0.1137476 0.1498246
0.3685902 -0.6034847 1.360947
0.2696913 -0.1189359 0.1666699
0.2697251 -0.1151764 0.08176246
0.3118697 -0.1212738 0.2746961
0.2396623 -0.3692455 0.8019768
0.3490341 -0.1121736 0.1857626
0.3633849 -0.06021371 0.270788
0.3687856 -0.1110907 0.1157225
0.3727014 -0.10957 0.2459714
0.3098773 -0.1218497 0.2754007
0.3812656 -0.2755703 0.0001036823
0.3378014 -0.2347559 -0.006795228
0.3269111 -0.2242913 0.005373001
0.408004 -0.08510739 0.2462234
0.3333516 -0.2307566 -0.006522238
0.4280296 -0.1120699 0.1246639
0.4206538 -0.08272576 0.2350323
0.4186086 -0.111055 0.1184679
0.4196833 -0.1100861 0.1397139
0.4123083 -0.1162034 0.08101875
0.4068787 -0.1105125 0.1673463
0.4030916 -0.1121866 0.128877
0.4034983 -0.1099387 0.2060085
0.4148626 -0.1081361 0.1886031
0.3921009 -0.1149078 0.2205003
0.3887209 -0.08382112 0.2427303
0.4011365 -0.11455 0.1764939
0.3943726 -0.1126171 0.1517479
0.3117954 -0.117606 0.1657613
0.3475685 -0.6187561 1.3646
0.3559895 -0.2754195 -0.02200259
0.3671178 -0.2736557 -0.003600106
0.341747 -0.2718553 -0.01690322
0.3496875 -0.1104168 0.2108811
0.4545068 -0.1114738 0.1030715
0.4622998 -0.1111838 0.180927
0.448188 -0.080874 0.2309135
0.4591981 -0.1112406 0.1652337
0.4415708 -0.08234033 0.2307141
0.4476466 -0.1100029 0.1856684
0.4372464 -0.1117643 0.112113
0.4282897 -0.08384651 0.238205
0.4309982 -0.08486855 0.2356033
0.4300114 -0.1132679 0.1157677
0.4114809 -0.109858 0.1199979
0.4704868 -0.1115717 0.08849752
0.476106 -0.1038857 0.1497443
0.4733397 -0.1089011 0.1519581
0.4515271 -0.1092362 0.160813
0.4334522 -0.1095158 0.1920078
0.4462785 -0.1105247 0.1267142
0.4509108 -0.1100155 0.1664771
0.4347609 -0.1144159 0.158153
0.4311849 -0.1074869 0.1711888
0.4168584 -0.1125102 0.165649
0.4006892 -0.08925721 0.2442113
0.3995899 -0.1100248 0.1947583
0.3148847 -0.1144518 0.1473034
0.3863184 -0.1184443 0.0878662
0.6017419 -0.7584437 0.08687285
0.3722598 -0.1155264 0.1232217
0.3234974 -0.1136811 0.201874
0.3354674 -0.2505661 -0.01382732
0.5021094 -0.1103862 0.1341924
0.4855056 -0.1084697 0.07733551
0.4947852 -0.1066487 0.1451755
0.4923991 -0.1099416 0.1252674
0.4821778 -0.1114372 0.08388864
0.4821819 -0.1114878 0.1050415
0.4730847 -0.11241 0.06625256
0.4697296 -0.1131644 0.1004593
0.4536265 -0.1152827 0.112046
0.4714531 -0.1240949 0.06329226
0.4227716 -0.08937624 0.2541803
0.4071369 -0.1114487 0.1888005
0.3659239 -0.08480513 0.2541989
0.612161 -0.6534022 3.59714E-05
0.3549472 -0.09977314 0.2650863
0.3808581 -0.1147503 0.1392469
0.3524344 -0.09961182 0.2743804
0.6044312 -0.754083 0.08360738
0.3346571 -0.1141267 0.1634319
0.3279123 -0.112432 0.1601267
0.3144221 -0.115063 0.1731676
0.369072 -0.2719573 -0.005808637
0.3194004 -0.1345299 0.3216667
0.3702942 -0.3108173 -0.04510434
0.2815894 -0.2274323 0.03629611
0.2311217 -0.3282759 0.7106764
0.3694219 -0.1127026 0.1673155
0.3950738 -0.1144787 0.08163173
0.3684475 -0.06676026 0.2717358
0.3720078 -0.08391024 0.2589976
0.3509228 -0.08280183 0.2810109
0.3649818 -0.1140968 0.2320255
0.3567511 -0.1130404 0.2155608
0.3274835 -0.1138125 0.2754989
0.3214324 -0.113536 0.1464739
0.3125497 -0.1166836 0.2497742
0.3073355 -0.1237492 0.2738197
0.3279144 -0.1127571 0.2805945
0.3140823 -0.1131933 0.1833454
0.3083085 -0.1166506 0.2463689
0.3058955 -0.1140298 0.1676455
0.2980001 -0.1330088 0.2847307
0.2966513 -0.1139837 0.1501351
0.2399589 -0.3678206 0.7991485
0.3490799 -0.1118887 0.185349
0.3688881 -0.1111209 0.1157554
0.3729695 -0.1101582 0.2468654
0.3100131 -0.1218694 0.2753446
0.3814407 -0.2759916 0.0003598481
0.3379056 -0.2347212 -0.006716564
0.3265067 -0.2234102 0.004225418
0.4078994 -0.08499037 0.2456674
0.3335402 -0.2316704 -0.006547526
0.4281417 -0.1120948 0.1247035
0.4210662 -0.08323126 0.2359169
0.41887 -0.1113535 0.1188173
0.4200898 -0.1106458 0.1404024
0.4119918 -0.1153763 0.08025704
0.4086195 -0.1101876 0.07013105
0.4070887 -0.1107284 0.1676337
0.4032359 -0.1122723 0.1289891
0.4039462 -0.1106513 0.2070597
0.415148 -0.1084815 0.1890895
0.3922651 -0.1150389 0.2206861
0.3938823 -0.1112583 0.1500513
0.3118799 -0.1172043 0.1652576
0.3466293 -0.6051217 1.336783
0.3669156 -0.2720901 -0.004139259
0.3499183 -0.1109434 0.211653
0.4545758 -0.1115154 0.103114
0.4625946 -0.1115736 0.1814162
0.4484264 -0.08116786 0.2313313
0.4592628 -0.1112777 0.1652393
0.4417015 -0.08247583 0.2308438
0.4373368 -0.1118307 0.1121808
0.42847 -0.08406474 0.2384871
0.4308807 -0.08458303 0.2349704
0.4300215 -0.1131747 0.1156566
0.4115774 -0.109919 0.1200589
0.6009399 -0.7764621 0.07646947
0.4727969 -0.1135995 0.09073339
0.4742174 -0.1094345 0.1530009
0.4519638 -0.1093404 0.1613669
0.4341584 -0.1103222 0.1929608
0.4451375 -0.1091848 0.1251536
0.4508629 -0.1096647 0.1663346
0.4341069 -0.1139072 0.1569058
0.4316519 -0.1075573 0.1718597
0.416991 -0.1130119 0.1655643
0.4004881 -0.08914988 0.2434713
0.4000238 -0.1103005 0.1954287
0.6040894 -0.7662608 0.08705442
0.3725294 -0.1157564 0.123537
0.3235576 -0.1133528 0.2016264
0.3348137 -0.2486968 -0.01515372
0.3271279 -0.2653908 -0.03544684
0.5025085 -0.1107474 0.1346238
0.4870188 -0.1102035 0.07902887
0.4966707 -0.108724 0.1477822
0.493111 -0.1106849 0.1261323
0.4813506 -0.1102995 0.08278933
0.482072 -0.1112453 0.1047939
0.4732565 -0.112522 0.06637675
0.4695482 -0.1128033 0.100097
0.454087 -0.1158302 0.1126498
0.4718834 -0.1245701 0.06372212
0.4073135 -0.1115964 0.189003
0.3659378 -0.08452965 0.2536471
0.6133268 -0.6560267 0.0005680472
0.3516513 -0.09642081 0.268437
0.6083273 -0.7647322 0.08647893
0.3347003 -0.1137316 0.162931
0.32816 -0.1131869 0.1611109
0.3144863 -0.114522 0.1724589
0.3193586 -0.1331243 0.3191219
0.3690073 -0.3034256 -0.04689425
0.4991399 -0.1160025 0.04102267
0.5068057 -0.1162623 0.08618684
0.498158 -0.1149161 0.06228679
0.4927765 -0.1154874 0.06054012
0.5116621 -0.1137001 0.1409468
0.509079 -0.1142807 0.1629402
0.4852994 -0.1200021 0.0519418
0.4716045 -0.1123092 0.1176254
0.4652196 -0.111157 0.1137359
0.4587715 -0.1114853 0.1436751
0.4879406 -0.1136784 0.1577945
0.4492885 -0.1173885 0.06681933
0.4289559 -0.107746 0.1275544
0.4141521 -0.08486606 0.2487625
0.3923953 -0.08619438 0.2589383
0.6136472 -0.6544316 0.002317354
0.3567572 -0.1105818 0.09561135
0.3586688 -0.1181103 0.2309634
0.5976573 -0.8776802 0.004893348
0.5790633 -0.8953535 -0.0043758
0.3482281 -0.1214754 0.1205256
0.3772961 -0.2800542 -0.0101646
0.3720777 -0.2717795 -0.001518622
0.3668728 -0.295646 -0.05645588
0.3480665 -0.256946 -0.01253639
0.3774058 -0.2982765 -0.01978871
0.3952864 -0.1148047 0.08173126
0.3678368 -0.06625219 0.2704006
0.3729913 -0.08519152 0.2606111
0.3514981 -0.08371006 0.2820573
0.3647878 -0.1142129 0.2314446
0.3277453 -0.114439 0.275929
0.3130851 -0.117607 0.2509507
0.3072664 -0.1236753 0.2734106
0.3283566 -0.1131101 0.2815523
0.3232692 -0.1162016 0.1357619
0.3089188 -0.1175354 0.2477913
0.2974861 -0.1152956 0.1518791
0.2404719 -0.3737593 0.8077062
0.3690503 -0.1113312 0.1159721
0.3731911 -0.1105699 0.2474506
0.3101433 -0.1216352 0.2748511
0.3816657 -0.2766734 0.0007034093
0.3380329 -0.2348737 -0.006576598
0.3266863 -0.2233768 0.004317954
0.4081767 -0.08532456 0.2461438
0.3337165 -0.2316617 -0.006437272
0.4286071 -0.112531 0.1252524
0.4218242 -0.0840151 0.2371457
0.4196701 -0.1122164 0.11978
0.4211176 -0.1118046 0.141715
0.4106053 -0.1132666 0.0727523
0.4077783 -0.1113421 0.1687235
0.4031433 -0.1119828 0.1288582
0.4039357 -0.1105448 0.2069563
0.3919468 -0.1147037 0.2198787
0.3899966 -0.08636932 0.2458202
0.395233 -0.113443 0.1519304
0.3124137 -0.1188222 0.1666371
0.3465732 -0.6075151 1.337666
0.3659922 -0.2699323 -0.005465657
0.3414967 -0.2682549 -0.01803575
0.350073 -0.1112729 0.2120834
0.4543628 -0.1110972 0.102637
0.4622188 -0.1109387 0.1804508
0.448866 -0.0817506 0.2322512
0.4592535 -0.1111959 0.165062
0.4423882 -0.08346251 0.2324917
0.4374264 -0.1118846 0.112211
0.4282267 -0.08354649 0.2373972
0.4308456 -0.08442785 0.2345518
0.4302659 -0.1135197 0.1160131
0.6003146 -0.7743728 0.07603601
0.4521517 -0.1094958 0.1615165
0.4342947 -0.1103689 0.1929522
0.4511545 -0.1100005 0.1667265
0.4344276 -0.1143235 0.1573952
0.4318946 -0.1078139 0.1721516
0.4172674 -0.1133587 0.1659743
0.4007673 -0.08950493 0.2439807
0.4003271 -0.1107469 0.1960101
0.3839825 -0.1170021 0.0861665
0.6043662 -0.766988 0.0873695
0.3728776 -0.1165094 0.1243895
0.3237803 -0.113853 0.2023059
0.3349639 -0.2483172 -0.01518005
0.5025963 -0.1101391 0.1351664
0.4873053 -0.1100877 0.0795657
0.4964171 -0.1081976 0.1476336
0.4926726 -0.1101089 0.1257168
0.4810567 -0.1096502 0.08272785
0.4816115 -0.110474 0.1044782
0.4723263 -0.1111871 0.06573348
0.4692564 -0.1125326 0.09969938
0.4528169 -0.1143652 0.1109873
0.4707789 -0.1233393 0.06266145
0.4079939 -0.1123944 0.1903511
0.6125528 -0.6549686 -0.0001148582
0.3515809 -0.09601513 0.2678489
0.6111462 -0.771604 0.08845118
0.328418 -0.1148835 0.1618091
0.3149567 -0.1165232 0.1743478
0.3203951 -0.1374243 0.3254947
0.3679947 -0.2993772 -0.04758451
0.4977826 -0.114352 0.03969474
0.4982959 -0.1150836 0.06241775
0.4906355 -0.1128021 0.05815925
0.5099089 -0.1117219 0.1384854
0.4850887 -0.1197105 0.05169021
0.4650475 -0.1108849 0.1133912
0.4583806 -0.1108721 0.1428618
0.4880553 -0.1138192 0.1579071
0.4477718 -0.1148915 0.06456144
0.4299354 -0.1094273 0.1295056
0.4136491 -0.08387479 0.2467871
0.3921801 -0.08558927 0.2576638
0.6125402 -0.6517721 0.001819789
0.3567526 -0.1102672 0.09526736
0.3582859 -0.1163284 0.2281267
0.5992712 -0.8831968 0.005829841
0.5773733 -0.8893963 -0.005221903
0.3723165 -0.2727022 -0.001115099
0.3677361 -0.3003781 -0.05526884
0.3647017 -0.3221173 -0.07498904
0.3770317 -0.2960407 -0.02045573
0.3953354 -0.1149354 0.08179802
0.3678758 -0.06633189 0.2703696
0.3730491 -0.08534878 0.2607377
0.3515443 -0.08381023 0.2820737
0.364832 -0.1143123 0.2314687
0.3277943 -0.1145576 0.2759848
0.3131343 -0.1177173 0.2509934
0.3073164 -0.1237727 0.2734317
0.3284063 -0.1132433 0.2816341
0.3233163 -0.1162829 0.1357739
0.3089688 -0.1176265 0.2478033
0.2405312 -0.3738099 0.80765
0.3691033 -0.1113627 0.1160307
0.3734675 -0.1113608 0.2487758
0.3101778 -0.1209973 0.2737671
0.3818113 -0.2771971 0.0009610653
0.338127 -0.2353407 -0.006330103
0.3267403 -0.2235256 0.004423767
0.4084385 -0.085866 0.2470829
0.333782 -0.2319719 -0.006265506
0.4286636 -0.1126767 0.1253372
0.4218869 -0.08416858 0.2372596
0.419706 -0.1123135 0.1198089
0.4211519 -0.1118978 0.1417367
0.4106158 -0.1132939 0.07272011
0.4078216 -0.1114538 0.1687673
0.4031947 -0.1121185 0.1289322
0.4039742 -0.1106407 0.2069752
0.3919934 -0.1148213 0.2199305
0.4006534 -0.1142891 0.174162
0.3952626 -0.1135085 0.1519171
0.3124614 -0.1189824 0.1667474
0.3465956 -0.6069051 1.336279
0.3408468 -0.2650299 -0.01904032
0.4544111 -0.1111275 0.102692
0.4616238 -0.1099874 0.1791333
0.4491629 -0.08214223 0.2329596
0.4591466 -0.1109839 0.1647922
0.4428547 -0.08413498 0.2337044
0.437597 -0.1121342 0.1125099
0.4277662 -0.0826976 0.235835
0.4307735 -0.08424982 0.2342241
0.4303674 -0.1136495 0.1161798
0.4522251 -0.1096051 0.1616319
0.4341467 -0.1100429 0.1924414
0.4514235 -0.1104511 0.1673018
0.434567 -0.1145715 0.1576877
0.4320056 -0.1080036 0.1723803
0.4174687 -0.1137775 0.1665004
0.4010953 -0.09025961 0.2452857
0.4005274 -0.1112221 0.1966666
0.3730408 -0.1170286 0.1249683
0.323871 -0.1146223 0.2033993
0.3350685 -0.249246 -0.01477917
0.4874039 -0.1102906 0.07970177
0.4964552 -0.1083114 0.147678
0.4926668 -0.1101607 0.1256894
0.4811661 -0.1098718 0.08288398
0.4817093 -0.1106776 0.1046229
0.4723682 -0.1113063 0.06578732
0.4693246 -0.1126941 0.09979755
0.4528486 -0.1144624 0.1110167
0.4706616 -0.1231872 0.06247824
0.4080148 -0.1124437 0.1903054
0.3684983 -0.08906581 0.2612342
0.612505 -0.6548674 -9.596348E-05
0.3516453 -0.09624074 0.2681014
0.610976 -0.7710901 0.08833924
0.3150055 -0.1166025 0.1743514
0.3135347 -0.1346689 0.3181947
0.3204437 -0.1374893 0.3254561
0.3679512 -0.2987483 -0.04772499
0.4968493 -0.1132322 0.03910463
0.4974741 -0.1143156 0.06162666
0.4886504 -0.1107192 0.05642249
0.5083853 -0.1101959 0.13678
0.4843093 -0.1188334 0.05100457
0.4650753 -0.1109059 0.1133747
0.4576831 -0.1099288 0.1418495
0.4879479 -0.1134395 0.1578932
0.4475158 -0.1145329 0.06424308
0.4304897 -0.1099344 0.1304742
0.413482 -0.08363959 0.2462216
0.3921635 -0.08555306 0.2574452
0.6147847 -0.6573964 0.002206177
0.3569208 -0.1104358 0.09563395
0.3580523 -0.1157568 0.22701
0.6023685 -0.8932852 0.006584734
0.5790461 -0.894729 -0.00452283
0.3720211 -0.271484 -0.00154382
0.3677045 -0.3004238 -0.05553764
0.3632347 -0.3163154 -0.07646964
0.3761046 -0.2932651 -0.02197886
0.3954972 -0.1151478 0.08189161
0.3680346 -0.06649019 0.2703673
0.351732 -0.08414011 0.2824256
0.3649884 -0.1144756 0.2314964
0.3279613 -0.1148308 0.2762055
0.3132949 -0.1180177 0.251252
0.307478 -0.1239912 0.2735587
0.3285733 -0.1135033 0.2818335
0.3234744 -0.1164648 0.1358435
0.3091303 -0.1178395 0.2479197
0.2405659 -0.3748342 0.8093205
0.369567 -0.111885 0.1163841
0.3744092 -0.1118096 0.2502767
0.3386946 -0.2362918 -0.006003454
0.3268051 -0.2229175 0.004127711
0.4089534 -0.08689809 0.2487835
0.3340009 -0.2340339 -0.005391404
0.4288338 -0.1129015 0.1254425
0.4221068 -0.08448344 0.2375436
0.4198779 -0.1125443 0.119922
0.4213182 -0.1121127 0.1418325
0.4108103 -0.1135929 0.07289389
0.408004 -0.1117119 0.1689243
0.4033711 -0.1123668 0.1290692
0.4041237 -0.1108027 0.2069972
0.3921694 -0.1150652 0.2200785
0.4009016 -0.1147522 0.174597
0.3954634 -0.1138381 0.1521621
0.3126169 -0.1193616 0.1670728
0.346802 -0.6082508 1.33866
0.3410471 -0.2653257 -0.01891704
0.4540789 -0.1108884 0.1023208
0.460544 -0.1089904 0.177929
0.4504527 -0.08308516 0.2346123
0.4593543 -0.1107937 0.1651833
0.4449003 -0.08573586 0.2364299
0.4378926 -0.1122413 0.1128405
0.4270254 -0.08198018 0.2346626
0.4311625 -0.08445276 0.23473
0.4312025 -0.114384 0.1169799
0.4524646 -0.1099624 0.1619597
0.4341932 -0.1100461 0.1922846
0.4519799 -0.1113627 0.1683794
0.4325994 -0.1091023 0.1737455
0.417943 -0.1147551 0.1676544
0.4010828 -0.1125657 0.1984712
0.3733662 -0.1180256 0.1259987
0.3352012 -0.2499654 -0.01450305
0.5028592 -0.1105462 0.1353904
0.4875959 -0.1105446 0.07982527
0.4966382 -0.1085474 0.1477899
0.492797 -0.1103237 0.1257135
0.4814053 -0.1101984 0.08308189
0.4817845 -0.1107548 0.104559
0.4725119 -0.1114875 0.06584214
0.4693722 -0.112714 0.09967811
0.4530528 -0.1147489 0.1111853
0.4707296 -0.1232399 0.06242207
0.4081872 -0.1126724 0.190425
0.3687015 -0.08942755 0.2616242
0.6127703 -0.6555009 6.885827E-05
0.3518807 -0.09691302 0.2690655
0.611419 -0.7723579 0.08871116
0.3151631 -0.1170216 0.1747376
0.3137554 -0.1350227 0.3184494
0.3206108 -0.1379946 0.3260942
0.3680782 -0.2988622 -0.0476635
0.4970496 -0.1134968 0.03919217
0.4976816 -0.1145897 0.06172045
0.4888729 -0.1110143 0.05653635
0.5086008 -0.1104781 0.1368767
0.4845107 -0.1190968 0.05109172
0.4652878 -0.1111795 0.1134688
0.4579165 -0.1102377 0.1419866
0.488153 -0.1137029 0.157968
0.4477268 -0.1148049 0.06434081
0.4307266 -0.1102567 0.1306304
0.4136979 -0.08389662 0.2462843
0.3923814 -0.08580694 0.2575052
0.614917 -0.6575963 0.002293602
0.3571401 -0.1107272 0.09576212
0.3582693 -0.1160005 0.2270697
0.6024604 -0.8933758 0.00666143
0.5791909 -0.8950137 -0.004411682
0.3679172 -0.3008679 -0.05537948
0.3634435 -0.3167641 -0.07631901
0.376324 -0.293719 -0.02180484
0.3095742 -0.2695739 -0.08219437
0.5114699 -0.1098285 0.04515833
0.5133879 -0.1092445 0.06279437
0.5261294 -0.1091239 0.1287097
0.5081441 -0.1096185 0.1110154
0.498531 -0.110557 0.09505753
0.4953148 -0.1126963 0.03841116
0.4232734 -0.1154818 0.128958
0.4246443 -0.1113525 0.1805584
0.4146654 -0.1114022 0.1397019
0.3365902 -0.1158432 0.137323
0.3779505 -0.2822638 -0.01738214
0.3410243 -0.2861571 -0.09131029
0.3955258 -0.115098 0.08179615
0.3680846 -0.06648889 0.2702233
0.3733376 -0.08583939 0.2612541
0.3517914 -0.08415763 0.2823301
0.3650706 -0.1146341 0.2316509
0.3280258 -0.1148478 0.2761283
0.3133625 -0.1180441 0.2511998
0.3075469 -0.124001 0.2734757
0.3286466 -0.1137217 0.2821128
0.3235364 -0.1163185 0.1356109
0.3092018 -0.117769 0.2477118
0.2405228 -0.3755287 0.8105009
0.3697019 -0.1119874 0.1164149
0.3745503 -0.1119556 0.2503586
0.3825729 -0.2790267 0.0002070218
0.3388238 -0.2363628 -0.005970642
0.4095966 -0.08718988 0.2499948
0.3345068 -0.2353568 -0.004965439
0.4222015 -0.0846208 0.2376724
0.4199272 -0.1125788 0.1198997
0.4213429 -0.1120895 0.1417343
0.4107959 -0.1134492 0.07271223
0.4080584 -0.1117557 0.1689048
0.4034879 -0.1125885 0.1292671
0.4042211 -0.1109691 0.207155
0.3922083 -0.11505 0.2199616
0.4009481 -0.1147689 0.174541
0.395506 -0.1138363 0.1520892
0.346857 -0.6089712 1.339915
0.4542238 -0.1110319 0.1023922
0.4607093 -0.1091744 0.1780557
0.4505626 -0.08317053 0.2345781
0.4594816 -0.1109086 0.1652155
0.4450061 -0.08581047 0.2363775
0.4380212 -0.1123503 0.1128743
0.4271678 -0.08212036 0.2347308
0.4312945 -0.08457237 0.2347605
0.4313181 -0.1144612 0.1169779
0.4528886 -0.1105758 0.1621562
0.4341477 -0.1101832 0.1921067
0.4520054 -0.1116332 0.1682278
0.4360005 -0.1168126 0.1601388
0.4322683 -0.1086708 0.1734693
0.4186074 -0.1157399 0.1681213
0.4023966 -0.09117088 0.2481993
0.4016534 -0.1131881 0.1991184
0.3852804 -0.1200403 0.08911039
0.3739937 -0.1189962 0.1265237
0.3248311 -0.1169494 0.2065458
0.502842 -0.1105178 0.1352818
0.4878726 -0.1109324 0.08015677
0.4965845 -0.1084655 0.1476066
0.492876 -0.1104241 0.1257618
0.4814181 -0.1101974 0.08302729
0.4818149 -0.1107813 0.1045267
0.4725902 -0.1115856 0.06588684
0.4693209 -0.1125998 0.099499
0.4531385 -0.1148642 0.1112515
0.4707578 -0.1232545 0.06239258
0.4082265 -0.1126754 0.1903437
0.6125745 -0.6549754 -4.597008E-05
0.3519887 -0.09726369 0.2695982
0.611431 -0.7724102 0.08871163
0.3152307 -0.1170404 0.1746922
0.3138571 -0.1348365 0.317984
0.3206751 -0.1379905 0.3259752
0.3681489 -0.2990622 -0.04760616
0.4971172 -0.1135602 0.03920306
0.4976282 -0.1144796 0.06157005
0.4889612 -0.1111068 0.05657031
0.5086647 -0.1105444 0.13687
0.4847176 -0.1193772 0.05128589
0.4654019 -0.111316 0.113549
0.4580498 -0.1104113 0.1421162
0.4882578 -0.113825 0.1580312
0.447842 -0.1149453 0.06442027
0.430861 -0.1104473 0.1307797
0.4137649 -0.08392856 0.2461928
0.3924679 -0.08587728 0.2574858
0.6148772 -0.6574405 0.00226514
0.3572475 -0.1108998 0.09588616
0.3583499 -0.1159989 0.2269549
0.5788791 -0.8937024 -0.004616037
0.3723617 -0.272304 -0.001209095
0.3679465 -0.300442 -0.0554751
0.3764436 -0.2940938 -0.02167188
0.5116247 -0.1099837 0.04523616
0.513501 -0.1093463 0.06282319
0.5262441 -0.109234 0.1287354
0.5082865 -0.1097604 0.111081
0.498643 -0.1106546 0.09507741
0.495472 -0.1128557 0.03849262
0.4233587 -0.1154783 0.1288594
0.4247384 -0.1113769 0.1804658
0.4147909 -0.1114963 0.1397154
0.3367237 -0.1158671 0.1372596
0.3334491 -0.1189742 0.2915474
0.3780581 -0.2822329 -0.01738425
0.3411334 -0.2858386 -0.09133749
0.3684578 -0.06684078 0.2707052
0.3731163 -0.08552471 0.2612752
0.3271704 -0.1140606 0.275353
0.3696586 -0.1119201 0.116298
0.3824842 -0.2786613 0.000148654
0.3387954 -0.2360188 -0.006032914
0.4095584 -0.08718459 0.2497753
0.3345323 -0.2351472 -0.00495173
0.4222299 -0.0847003 0.2378602
0.4193849 -0.1121808 0.1197505
0.4208192 -0.1117478 0.1415363
0.4103992 -0.113221 0.07246579
0.4077173 -0.1115431 0.168783
0.4046974 -0.1115881 0.2077291
0.3921708 -0.1149635 0.2201205
0.3914611 -0.08789639 0.2487806
0.4002587 -0.1139533 0.1741938
0.3432344 -0.5987522 1.31864
0.4542429 -0.1112545 0.1025953
0.4608306 -0.1095834 0.178524
0.4502954 -0.08289652 0.2338947
0.4593349 -0.1108318 0.1650226
0.4379264 -0.1123283 0.1128056
0.4273113 -0.08260767 0.2354358
0.4311789 -0.08452049 0.2344861
0.4311464 -0.114245 0.1166895
0.4527955 -0.1105304 0.1620013
0.434163 -0.1103368 0.1922084
0.4519539 -0.1116667 0.1681739
0.4358658 -0.1166223 0.1598101
0.4323807 -0.1090447 0.1738814
0.4023542 -0.09112799 0.2479219
0.4016483 -0.1132417 0.1990771
0.4882775 -0.1116555 0.08033685
0.4969881 -0.1090194 0.1479952
0.49268 -0.1105923 0.1256562
0.4813253 -0.1103816 0.0830283
0.4819213 -0.1113084 0.1045481
0.4725843 -0.1119932 0.06582801
0.4694846 -0.1124836 0.09998073
0.4534089 -0.1148161 0.1118356
0.4701923 -0.1232886 0.0619497
0.4076427 -0.1123836 0.1896473
0.3683223 -0.08879951 0.2611837
0.6126586 -0.6555616 -8.822978E-05
0.6090174 -0.7676905 0.08777179
0.3147195 -0.1162065 0.1736871
0.313893 -0.1331252 0.3148116
0.4969326 -0.1134791 0.03914391
0.4977633 -0.1148606 0.06190793
0.4891387 -0.1115582 0.05697046
0.5087506 -0.1108474 0.1371776
0.4848403 -0.119759 0.05161305
0.4653326 -0.1113843 0.1135841
0.4581526 -0.1107905 0.1425261
0.4881571 -0.1138624 0.1580068
0.4477308 -0.114911 0.06438343
0.4307938 -0.110488 0.1307774
0.4137364 -0.08405483 0.2462675
0.3924322 -0.08596765 0.257494
0.6141454 -0.6557834 0.001995012
0.3724432 -0.2733312 -0.0007203072
0.3678754 -0.3001837 -0.05544811
0.3765833 -0.2955715 -0.02109073
0.5111741 -0.1095829 0.04489493
0.5135866 -0.1096509 0.06309487
0.5262879 -0.1094855 0.128968
0.5081993 -0.1098387 0.1111176
0.4984097 -0.1105171 0.09489565
0.4958218 -0.1135547 0.03907861
0.4244455 -0.1108454 0.1796265
0.4145558 -0.1110394 0.1390891
0.3366897 -0.1153715 0.1366147
0.3778521 -0.280929 -0.0177547
0.3945545 -0.1146594 0.08200449
0.3684423 -0.06700678 0.2708735
0.3730962 -0.08567858 0.2614264
0.3506732 -0.08340928 0.28145
0.3271574 -0.1142016 0.2754961
0.4092833 -0.0867288 0.2488156
0.3344561 -0.2345824 -0.005066514
0.4222167 -0.0849008 0.2380923
0.4193429 -0.1123117 0.1199079
0.4207741 -0.1118706 0.1416765
0.4103392 -0.1132889 0.07257812
0.4077069 -0.1117614 0.1690448
0.4046417 -0.1116541 0.2077627
0.3921238 -0.1150344 0.2201593
0.391381 -0.08784741 0.2485577
0.400188 -0.1139575 0.1741651
0.3942111 -0.1130371 0.1514595
0.454242 -0.1115014 0.1028744
0.4609354 -0.1100152 0.179087
0.458931 -0.1103401 0.164336
0.4375997 -0.1118793 0.1123106
0.4275745 -0.08341454 0.2368054
0.4309132 -0.08422349 0.2338506
0.4524414 -0.1100994 0.161402
0.4338087 -0.1098007 0.1913841
0.4514636 -0.1109618 0.1671945
0.4353536 -0.1157203 0.1586314
0.4323807 -0.1093123 0.1742171
0.4022623 -0.09114136 0.2478389
0.4014024 -0.1127456 0.1983086
0.3361967 -0.2502748 -0.01433289
0.488302 -0.1119288 0.08064014
0.4969283 -0.1091638 0.1481486
0.4926591 -0.110794 0.1258851
0.4813637 -0.1106794 0.08335841
0.4818695 -0.1114581 0.1047224
0.4696073 -0.1129406 0.1004883
0.4534299 -0.1150988 0.1121604
0.4700561 -0.1232747 0.06199282
0.612218 -0.654748 -9.679794E-05
0.6090789 -0.7683769 0.08811367
0.3674047 -0.2979063 -0.04652673
0.4960694 -0.1130893 0.03865206
0.4976399 -0.1150204 0.06194159
0.4891218 -0.1117084 0.05714247
0.5084724 -0.1108594 0.1370667
0.465308 -0.1117231 0.1136783
0.4582504 -0.1110929 0.142847
0.487644 -0.1133322 0.1576997
0.448405 -0.1157382 0.06525546
0.4303849 -0.1102816 0.1303918
0.413731 -0.08406128 0.2464903
0.3921548 -0.0856493 0.2570056
0.6123738 -0.6521877 0.001814991
0.3720301 -0.2724395 -0.0009736121
0.3677369 -0.2997837 -0.05510849
0.3759118 -0.2934347 -0.0211592
0.5135542 -0.109831 0.06329215
0.5264882 -0.1099495 0.1295079
0.5080906 -0.1099175 0.1112048
0.4954156 -0.1131925 0.03882933
0.4239113 -0.1098107 0.1781498
0.4139311 -0.1096311 0.1373492
0.3365435 -0.1138164 0.1347565
0.3881935 -0.3000196 -0.009150505
0.3774834 -0.2787993 -0.01840165
0.3685791 -0.06706865 0.2710667
0.4085764 -0.08457251 0.244848
0.4222019 -0.08453545 0.2374673
0.4191637 -0.1114314 0.1189003
0.4205295 -0.1108266 0.1403913
0.4077072 -0.1113392 0.1684922
0.4046624 -0.1112881 0.2072364
0.3919592 -0.1138505 0.2183669
0.3914039 -0.08745767 0.2478817
0.3941036 -0.1121143 0.1502969
0.4543019 -0.1113723 0.1029084
0.4615551 -0.1105014 0.1798466
0.4579092 -0.1097419 0.1627717
0.4364916 -0.1106161 0.1108506
0.4295515 -0.08555944 0.2403904
0.4310221 -0.08456853 0.2339018
0.4512843 -0.1076416 0.1581579
0.4334774 -0.1088039 0.189959
0.4322327 -0.1087235 0.1734217
0.4241222 -0.1120471 0.1177342
0.4978828 -0.1103566 0.1496915
0.4927793 -0.1107489 0.1258397
0.4812035 -0.1101711 0.08284259
0.4822581 -0.1118532 0.1051607
0.469075 -0.111721 0.09918097
0.4690307 -0.1210896 0.06005111
0.6098171 -0.6476844 -0.001673043
0.6074612 -0.7627811 0.0864571
0.4958243 -0.1123862 0.03805102
0.4978877 -0.1151027 0.06201413
0.4892248 -0.1115582 0.05700132
0.5086265 -0.1107935 0.1370133
0.4656803 -0.1120963 0.1141242
0.4582002 -0.1106187 0.142282
0.4873646 -0.1125436 0.1567042
0.4301003 -0.1090684 0.1289477
0.4140345 -0.08447377 0.247362
0.6099064 -0.644676 5.528331E-05
0.3719891 -0.270397 -0.001890555
0.3679695 -0.3012728 -0.0547906
0.5147993 -0.1104144 0.06470865
0.5274401 -0.1111211 0.130412
0.422819 -0.1080308 0.1752026
0.4123388 -0.1064914 0.1333278
0.3872093 -0.2952038 -0.01088104
0.3771997 -0.2772511 -0.0190343
0.4982765 -0.1117347 -0.03151508
0.5437576 -0.1095851 0.120658
0.5296301 -0.1071241 0.1360548
0.4294178 -0.1087975 0.1818864
0.4226368 -0.1071649 0.1457428
0.3903345 -0.1100618 0.1941443
0.3857758 -0.1116226 0.1366624
0.3811304 -0.2739421 -0.001115859
0.4069624 -0.08208472 0.2392167
0.4217913 -0.0832372 0.2350835
0.4186397 -0.1095972 0.1168031
0.4202159 -0.1096055 0.1388886
0.4074991 -0.1102482 0.1670262
0.4046244 -0.1107225 0.2063843
0.3913921 -0.1110065 0.213996
0.4542294 -0.110745 0.1022809
0.4616719 -0.1103418 0.1796882
0.4579616 -0.1094289 0.1624158
0.4364838 -0.1100501 0.110273
0.4296147 -0.0852094 0.2398146
0.4280975 -0.1106473 0.1125284
0.4491662 -0.1051929 0.1541594
0.4331231 -0.1076721 0.1889285
0.4315363 -0.1073546 0.1717216
0.4251819 -0.1140367 0.1200994
0.4992771 -0.1122566 0.152136
0.492591 -0.1102836 0.1253014
0.4799624 -0.1079319 0.08059216
0.4826801 -0.1123515 0.1057271
0.6045719 -0.7531391 0.08372128
0.4940206 -0.1092763 0.03548956
0.4977001 -0.1145692 0.0615623
0.5081705 -0.1099173 0.1359566
0.4573521 -0.10855 0.1397076
0.4859018 -0.109838 0.1531938
0.4295223 -0.107104 0.1265989
0.4142103 -0.08454148 0.2475034
0.5146715 -0.1099304 0.06430897
0.4184963 -0.1061157 0.1178988
0.4228984 -0.1076654 0.1747567
0.3772595 -0.275554 -0.01962465
0.4990335 -0.1124699 -0.03095533
0.5444127 -0.1103445 0.1213022
0.431968 -0.1145377 0.1890925
0.4221779 -0.1062254 0.1441927
0.3892676 -0.1072178 0.189114
0.3855535 -0.1112705 0.1355025
0.5519603 -0.1078297 0.08561805
0.505526 -0.1061408 -0.03156494
0.5603364 -0.1073656 0.1265238
0.5498111 -0.1050072 0.1045127
0.4944652 -0.1098199 -0.03626168
0.4357649 -0.107577 0.1286954
0.4249871 -0.1033556 0.1144687
0.3812945 -0.2746195 -0.0007626116
0.4219863 -0.08375469 0.2354927
0.4190613 -0.1105444 0.1174827
0.4206454 -0.1107457 0.1396486
0.407994 -0.1120141 0.1682274
0.4540871 -0.1101325 0.1016625
0.4617135 -0.1101799 0.1795165
0.458306 -0.1099519 0.1631888
0.4367586 -0.1105011 0.1108567
0.4290994 -0.08345343 0.236617
0.4286718 -0.1120911 0.1142629
0.4251389 -0.1133768 0.1193788
0.4984219 -0.1109333 0.1507231
0.492111 -0.1093222 0.12454
0.4808112 -0.1085801 0.08172265
0.48187 -0.1112235 0.1044467
0.4951371 -0.1108778 0.03689674
0.4970136 -0.1133045 0.06045863
0.507787 -0.109199 0.1351217
0.4577193 -0.1090785 0.1404295
0.4857583 -0.1094127 0.152691
0.430284 -0.1088409 0.1287666
0.4139619 -0.08347543 0.2455462
0.5142807 -0.109171 0.06363893
0.3775037 -0.2774919 -0.01882474
0.4988943 -0.1119867 -0.03118515
0.5442652 -0.1099759 0.1209154
0.4227758 -0.1082532 0.146955
0.5074553 -0.1082571 -0.03005709
0.5612314 -0.1079959 0.1275874
0.5497911 -0.104695 0.1044883
0.4951913 -0.1106123 -0.03569543
0.4200516 -0.08753835 0.2338508
0.5204649 -0.1073303 -0.02850074
0.5123649 -0.1076059 -0.02831723
0.5345883 -0.1078582 0.0825347
0.5533662 -0.1073027 0.115205
0.5271999 -0.1087977 0.1210946
0.5156531 -0.1102891 0.08707455
0.4365292 -0.1098016 0.1315629
0.535026 -0.1079888 0.1472181
0.516827 -0.1060468 0.122395
0.5179996 -0.1083447 0.1488422
0.6143366 -0.05911908 0.1449988
0.5974286 -0.107793 0.04543096
0.5932411 -0.1114761 0.03447805
0.582119 -0.1083598 0.01648262
0.5864744 -0.108896 0.1064393
0.5256281 -0.1100932 0.1078924
0.5240396 -0.1110324 0.04461035
0.5038719 -0.1101306 0.09685469
0.4869811 -0.1105839 0.1069531
0.4704431 -0.1098385 0.1148767
0.461577 -0.120437 0.07372227
0.4252796 -0.1121262 0.1607175
0.4281981 -0.1085507 0.1317574
0.4193042 -0.1104768 0.1169879
0.4537391 -0.1089859 0.1002703
0.4582981 -0.1096315 0.1626137
0.436777 -0.1101448 0.1103315
0.4445352 -0.106997 0.1021305
0.4547056 -0.1137547 0.07766062
0.4336269 -0.1083822 0.1898029
0.4246383 -0.1105003 0.1157305
0.4922457 -0.1092271 0.1239902
0.4811596 -0.1089649 0.08175111
0.4962795 -0.1125697 0.03790525
0.4952929 -0.110745 0.05832717
0.5075114 -0.1079811 0.1346059
0.4575415 -0.1083657 0.1397771
0.4842985 -0.1074056 0.1498272
0.4302886 -0.1088054 0.1284688
0.5132779 -0.1075092 0.06192937
0.4769001 -0.1060181 0.1040822
0.4206024 -0.1125886 0.1256099
0.4989504 -0.1118264 -0.03141168
0.5434814 -0.1087389 0.1191773
0.5080934 -0.1091787 -0.02974802
0.5610062 -0.1075536 0.1265789
0.5501405 -0.1050361 0.1044708
0.4957256 -0.1113852 -0.03549483
0.5225616 -0.110186 -0.02726471
0.5833967 -0.1073699 0.0977492
0.5312363 -0.1164279 -0.07205285
0.5976582 -0.1073963 0.1092238
0.5579979 -0.1098754 0.04822177
0.5392447 -0.1102245 0.03670186
0.4368977 -0.1104267 0.1321229
0.6257076 -0.07719792 0.1418825
0.5971981 -0.1111366 0.04484546
0.5850725 -0.1111178 0.02250659
0.5926033 -0.1058935 0.1015619
0.6110464 -0.1112148 0.134661
0.5862678 -0.1084799 0.08809623
0.5506302 -0.1129975 0.01696464
0.5267312 -0.1128992 -0.03172463
0.5347613 -0.1065181 0.146722
0.5179386 -0.1071171 0.1239716
0.5163229 -0.1049854 0.1458331
0.5997884 -0.1107908 0.03319114
0.5970177 -0.112643 0.03821713
0.5146837 -0.109381 -0.03774314
0.4733523 -0.1073956 0.1497707
0.5296642 -0.1155823 -0.071517
0.5202754 -0.1117876 0.1078725
0.5010235 -0.108914 0.1205498
0.5987167 -0.1091917 0.0463846
0.594678 -0.1130885 0.03555746
0.5834255 -0.1098675 0.01739335
0.5875962 -0.1101553 0.1075046
0.5255016 -0.1096376 0.1069341
0.5243738 -0.1113629 0.04456198
0.5037091 -0.109476 0.09570289
0.4866379 -0.1093671 0.1051069
0.4703097 -0.1089302 0.1133563
0.4614515 -0.1193776 0.07228935
0.5284005 -0.1112012 -0.03498943
0.5446681 -0.1095515 0.09303474
0.5361915 -0.1075305 0.09611475
0.5569487 -0.1112531 0.07787123
0.4679371 -0.107667 0.1497519
0.4953748 -0.1062354 0.1540815
0.4896749 -0.1067269 0.1400781
0.4541386 -0.1090347 0.1000234
0.459117 -0.1106622 0.1632268
0.4375983 -0.1111813 0.1109171
0.4984765 -0.109714 0.1482636
0.4927587 -0.1093026 0.1237808
0.4968575 -0.1127201 0.03787202
0.4960675 -0.1113659 0.05871573
0.5082957 -0.10865 0.1350037
0.4583731 -0.1091997 0.1404169
0.485174 -0.1083121 0.1505565
0.499313 -0.1116073 -0.03159091
0.5432836 -0.1078916 0.1179121
0.5092072 -0.1104116 -0.02896968
0.5605692 -0.1064813 0.1248736
0.5510603 -0.1058161 0.1051117
0.4967586 -0.1125415 -0.03478403
0.5234425 -0.1109887 -0.026729
0.5152251 -0.1115993 -0.02696657
0.5835081 -0.106864 0.09730798
0.5323011 -0.1173514 -0.07166967
0.595294 -0.1045163 0.1055813
0.5584125 -0.1098762 0.0480749
0.5403159 -0.1111343 0.03737152
0.4380324 -0.1125644 0.1345972
0.626399 -0.07781023 0.1421298
0.5978743 -0.1116685 0.04511958
0.5857153 -0.1115878 0.02275203
0.5932083 -0.1063556 0.1016928
0.6115486 -0.1115919 0.1346291
0.5871854 -0.1093228 0.08868185
0.5511966 -0.1132972 0.01708637
0.5273865 -0.1132827 -0.03146261
0.5915928 -0.109418 0.1446426
0.5350565 -0.1063655 0.1459675
0.5186495 -0.1076434 0.1241878
0.51744 -0.106303 0.1471176
0.6001614 -0.1113942 0.03273179
0.5961378 -0.1118053 0.03684349
0.4749246 -0.1095552 0.1522754
0.5289692 -0.1145217 -0.07249877
0.5203233 -0.1109291 0.1071246
0.5217333 -0.1094987 -0.04052642
0.5335237 -0.1128704 0.08787355
0.5016684 -0.1092573 0.120745
0.6001698 -0.1104964 0.04743692
0.5959893 -0.1142544 0.03644034
0.5852398 -0.1116704 0.01876593
0.5880094 -0.1102805 0.1073496
0.5252548 -0.1084977 0.105305
0.5247169 -0.1112009 0.04426229
0.5037423 -0.1086184 0.09447721
0.4864857 -0.1078816 0.1030954
0.4706327 -0.1084026 0.1124426
0.4615111 -0.1178784 0.07060826
1.760883 -0.7983576 1.145566
0.5376221 -0.123871 -0.07282862
0.529051 -0.1115786 -0.03472829
0.5456896 -0.1105992 0.09387243
0.5367163 -0.1077551 0.09600106
0.5582765 -0.1127344 0.07915318
0.5014101 -0.1085762 0.1436693
0.4687976 -0.1085726 0.1504877
1.925708 -0.6821169 1.423595
0.5911701 -0.04782721 0.105298
0.6244316 -0.1066689 0.1168782
0.5192768 -0.1118085 -0.02931279
0.5714667 -0.1068837 0.0609853
0.5704838 -0.1138714 0.07478771
0.5382251 -0.1090724 0.07867661
0.5479156 -0.1062813 0.1322859
0.5082462 -0.1105888 -0.02749826
0.4976828 -0.1093565 0.1578916
0.4908971 -0.1081243 0.1415493
0.4987214 -0.1122547 0.08178192
0.4972692 -0.1108961 0.09929806
0.4850532 -0.1103267 0.1289225
0.4550742 -0.1099618 0.1008925
0.4987027 -0.1090735 0.1471169
0.4937424 -0.1102794 0.1247592
0.4826551 -0.1101218 0.1022896
0.4973161 -0.1124577 0.03749569
0.4969394 -0.1120894 0.05926658
0.5094113 -0.1098662 0.1362683
0.4996184 -0.1116833 -0.0321212
0.5441284 -0.1080805 0.118165
0.5106062 -0.1120543 -0.02800551
0.5609123 -0.1062972 0.1243478
0.4979606 -0.1139338 -0.03400913
0.5244916 -0.1119416 -0.02613854
0.5161261 -0.1122974 -0.02654277
0.5843755 -0.1074323 0.09764953
0.5560572 -0.1082127 0.1175639
0.5324589 -0.1166447 -0.0719181
0.5956321 -0.1044292 0.1051483
0.5587453 -0.1096199 0.04769714
0.5402372 -0.1106933 0.03644475
0.6263221 -0.07747971 0.1410986
0.5981886 -0.1115465 0.04479368
0.5858632 -0.1112094 0.02226661
0.5939699 -0.1067938 0.1018839
0.6117445 -0.1114036 0.1339713
0.5875357 -0.1092367 0.08828814
0.5511762 -0.1124819 0.0162793
0.5281053 -0.1136129 -0.03128737
0.5922847 -0.1097879 0.1447185
0.5198709 -0.1089899 0.125587
0.619759 -0.06269407 0.1460719
0.5970053 -0.1123563 0.03718926
0.6060281 -0.08805402 0.1518113
0.475984 -0.1107898 0.1536054
0.5297741 -0.114908 -0.07217818
0.5210702 -0.1112458 0.1072026
0.5222502 -0.1096535 -0.0407787
0.5351638 -0.1132979 0.08938678
0.5038247 -0.1121763 0.1237121
0.6179332 -0.0617426 0.1478397
0.6014336 -0.1114086 0.0480905
0.5968851 -0.1147563 0.03669593
0.5857435 -0.111697 0.01862356
0.587689 -0.1093488 0.1059682
0.5257807 -0.1085157 0.1050852
0.52597 -0.1124578 0.04526374
0.5047722 -0.1096087 0.09539054
0.4877264 -0.1094879 0.10477
0.4996715 -0.1109648 0.09502907
0.4722997 -0.1114224 0.1158847
1.74858 -0.7908366 1.13257
0.5298666 -0.1120821 -0.03444296
0.5477211 -0.1130905 0.09645002
0.559736 -0.1142214 0.08050387
1.915757 -0.6781231 1.411879
1.899231 -0.7355945 1.401859
0.5200297 -0.1120902 -0.02908482
0.539071 -0.1095893 0.07900487
0.5489269 -0.1070951 0.1329622
0.5093129 -0.1115771 -0.02678508
0.537541 -0.1082498 0.1231638
0.4988467 -0.1106994 0.1593678
0.4920691 -0.1095374 0.1430936
0.4997846 -0.113322 0.08274682
0.4984263 -0.1122142 0.1005918
0.4862484 -0.1118758 0.130603
1.623823 -0.4243538 1.030457
1.653701 -0.5814682 0.9445932
0.7356446 -0.1207309 0.08320175
0.7470765 -0.1196888 0.1045483
1.656073 -0.6437359 0.8957131
0.7537678 -0.1191163 0.1208031
0.7661991 -0.1197198 0.1400863
1.854239 -0.5208108 1.398939
1.891527 -0.5806751 1.442998
1.876289 -0.7565139 1.422353
1.946718 -0.7687981 1.593098
0.5454369 -0.2091632 -0.1600174
0.538309 -0.2138375 -0.1648557
0.5802659 -0.1115972 0.08979966
0.5502875 -0.1132247 0.03014286
0.6063253 -0.108171 0.05120663
0.582601 -0.1064221 0.03089514
0.5285247 -0.1146125 -0.06775486
0.5845684 -0.1065756 0.1402427
0.5198408 -0.1106707 0.1134708
0.489885 -0.1190418 0.1548057
0.479087 -0.1186873 0.0633914
0.5000166 -0.1115555 0.1494163
0.4954863 -0.1131933 0.1276278
0.4977527 -0.113331 0.0384008
0.4996906 -0.111859 -0.03181727
0.5445002 -0.1087067 0.1192588
0.5119616 -0.113949 -0.0268732
0.5623837 -0.1078488 0.126289
